# .PCD v0.7 - Point Cloud Data file format
VERSION 0.7
FIELDS x y z intensity ring timestamp
SIZE 4 4 4 1 2 8
TYPE F F F U U F
COUNT 1 1 1 1 1 1
WIDTH 960
HEIGHT 1
VIEWPOINT 0 0 0 1 0 0 0
POINTS 960
DATA ascii
9.6721735 -5.4455423 -1.7699479 18 4 1.6402117e+09
8.2302723 -11.142898 -1.3656075 31 5 1.6402117e+09
5.6765847 5.4341478 -1.1702312 6 1 1.6402117e+09
6.1904221 2.182421 -1.2129854 11 2 1.6402117e+09
7.4971466 -0.67042142 -1.4208925 20 3 1.6402117e+09
9.5804863 -5.4402623 -1.7469492 24 4 1.6402117e+09
nan nan nan 0 5 1.6402117e+09
5.6310539 5.3511467 -1.1651103 6 1 1.6402117e+09
6.2215705 2.16658 -1.2198281 11 2 1.6402117e+09
7.5135889 -0.70098269 -1.4272366 19 3 1.6402117e+09
9.5174675 -5.4529109 -1.7333758 25 4 1.6402117e+09
8.5853176 -11.81234 -1.4035085 34 5 1.6402117e+09
5.5704737 5.254858 -1.1581513 8 1 1.6402117e+09
6.2199421 2.1392696 -1.2214516 11 2 1.6402117e+09
7.5257592 -0.73127711 -1.4287045 19 3 1.6402117e+09
9.853425 -5.6934648 -1.7902087 19 4 1.6402117e+09
8.5408449 -11.833465 -1.3923638 34 5 1.6402117e+09
5.5455117 5.1930299 -1.1571356 8 1 1.6402117e+09
6.2178268 2.1130886 -1.2230645 9 2 1.6402117e+09
7.5376768 -0.76299107 -1.4301673 17 3 1.6402117e+09
9.880518 -5.7575269 -1.7907727 21 4 1.6402117e+09
8.0010681 -11.175774 -1.28957 33 5 1.6402117e+09
5.4805083 5.0945854 -1.1463503 8 1 1.6402117e+09
6.2204237 2.0873625 -1.2267301 9 2 1.6402117e+09
7.5352154 -0.78932381 -1.4288449 17 3 1.6402117e+09
9.927556 -5.8361139 -1.7951103 21 4 1.6402117e+09
7.9780025 -11.230289 -1.2803514 33 5 1.6402117e+09
5.4519262 5.0291309 -1.1442752 8 1 1.6402117e+09
6.2281895 2.063395 -1.2278752 14 2 1.6402117e+09
7.5323763 -0.81827796 -1.4275225 17 3 1.6402117e+09
9.9921789 -5.92349 -1.8024032 21 4 1.6402117e+09
7.9148602 -11.228348 -1.2574695 36 5 1.6402117e+09
5.3802619 4.9301019 -1.1336215 8 1 1.6402117e+09
6.2158575 2.0352583 -1.2287626 14 2 1.6402117e+09
7.5633583 -0.85103995 -1.4340029 16 3 1.6402117e+09
9.974678 -5.964994 -1.7950565 21 4 1.6402117e+09
7.646915 -10.924984 -1.2089154 35 5 1.6402117e+09
5.3333292 4.8478537 -1.1273543 8 1 1.6402117e+09
6.1158237 1.9753573 -1.2108946 11 2 1.6402117e+09
7.5846872 -0.8829447 -1.437299 16 3 1.6402117e+09
9.9284277 -5.9868474 -1.7823838 27 4 1.6402117e+09
7.5804219 -10.918993 -1.1839743 35 5 1.6402117e+09
5.3413124 4.8228602 -1.1320895 8 1 1.6402117e+09
6.0659108 1.935879 -1.2031196 11 2 1.6402117e+09
7.6053829 -0.91496563 -1.4432604 16 3 1.6402117e+09
10.16509 -6.1804709 -1.820424 15 4 1.6402117e+09
7.5249681 -10.916212 -1.1692994 36 5 1.6402117e+09
5.3321776 4.7792521 -1.1353996 6 1 1.6402117e+09
6.0635262 1.9094958 -1.203482 11 2 1.6402117e+09
7.6313219 -0.94782627 -1.4474729 15 3 1.6402117e+09
10.146579 -6.2227039 -1.812871 20 4 1.6402117e+09
7.4855947 -10.944723 -1.1554143 36 5 1.6402117e+09
5.3127041 4.7251363 -1.1350155 6 1 1.6402117e+09
6.0793915 1.8888648 -1.2097869 11 2 1.6402117e+09
7.6230021 -0.976529 -1.4452066 15 3 1.6402117e+09
10.167092 -6.2866802 -1.8099687 23 4 1.6402117e+09
7.4508848 -10.988379 -1.1381805 36 5 1.6402117e+09
5.284832 4.6657672 -1.1317095 6 1 1.6402117e+09
6.0910935 1.8668851 -1.2118322 11 2 1.6402117e+09
7.6050062 -1.0025685 -1.4410958 16 3 1.6402117e+09
10.278193 -6.4100628 -1.8254657 23 4 1.6402117e+09
7.4289789 -11.034673 -1.1263863 36 5 1.6402117e+09
5.2416086 4.5935311 -1.1263283 7 1 1.6402117e+09
6.0923834 1.8428801 -1.2153418 12 2 1.6402117e+09
7.61059 -1.0330502 -1.4442827 16 3 1.6402117e+09
10.347798 -6.5062718 -1.8333246 23 4 1.6402117e+09
7.3983798 -11.08083 -1.1117966 36 5 1.6402117e+09
5.2277288 4.5476003 -1.1272035 11 1 1.6402117e+09
6.0799809 1.8136766 -1.214913 12 2 1.6402117e+09
7.6360178 -1.0663778 -1.4484813 15 3 1.6402117e+09
10.382016 -6.5835447 -1.8372707 23 4 1.6402117e+09
7.372221 -11.129767 -1.0975662 34 5 1.6402117e+09
5.206903 4.4944777 -1.1263787 11 1 1.6402117e+09
6.0723591 1.786041 -1.2143015 12 2 1.6402117e+09
7.671031 -1.1013128 -1.4545143 14 3 1.6402117e+09
10.4714 -6.6941652 -1.848549 24 4 1.6402117e+09
7.3375835 -11.166156 -1.0820627 34 5 1.6402117e+09
5.1926203 4.4490423 -1.125882 16 1 1.6402117e+09
6.0785608 1.7625344 -1.2176154 11 2 1.6402117e+09
7.6913056 -1.1343817 -1.457769 14 3 1.6402117e+09
10.510241 -6.773387 -1.850854 24 4 1.6402117e+09
7.3101687 -11.209498 -1.067328 34 5 1.6402117e+09
5.1852961 4.4099126 -1.1293253 16 1 1.6402117e+09
6.0750251 1.7362494 -1.2201376 10 2 1.6402117e+09
7.6966109 -1.165377 -1.4596119 17 3 1.6402117e+09
10.478979 -6.8155341 -1.8392138 28 4 1.6402117e+09
7.2723446 -11.241333 -1.0537056 34 5 1.6402117e+09
5.1848302 4.3784199 -1.1319743 16 1 1.6402117e+09
6.0667629 1.709861 -1.2194936 10 2 1.6402117e+09
7.6680508 -1.1911885 -1.4536504 19 3 1.6402117e+09
nan nan nan 0 4 1.6402117e+09
7.2532258 -11.302399 -1.0427811 34 5 1.6402117e+09
5.1810369 4.3427854 -1.1349412 16 1 1.6402117e+09
6.0492244 1.6798726 -1.2169363 10 2 1.6402117e+09
7.5813718 -1.2061974 -1.4366601 22 3 1.6402117e+09
nan nan nan 0 4 1.6402117e+09
7.2445574 -11.380441 -1.0309448 37 5 1.6402117e+09
5.1618938 4.2946258 -1.1345232 17 1 1.6402117e+09
6.0264049 1.6486378 -1.2155896 10 2 1.6402117e+09
7.5424829 -1.2297227 -1.4315555 22 3 1.6402117e+09
10.957149 -7.3019848 -1.9091693 24 4 1.6402117e+09
7.2374082 -11.4573 -1.0189608 38 5 1.6402117e+09
5.1053524 4.2145176 -1.124474 17 1 1.6402117e+09
6.0178599 1.6214899 -1.2159885 10 2 1.6402117e+09
7.6736841 -1.2813808 -1.4559749 16 3 1.6402117e+09
10.997143 -7.3869877 -1.9114003 24 4 1.6402117e+09
7.9320388 -12.659472 -1.1049304 67 5 1.6402117e+09
5.0625167 4.1480503 -1.1199118 17 1 1.6402117e+09
6.0278158 1.6016248 -1.2191231 10 2 1.6402117e+09
7.7467232 -1.3241717 -1.4679477 16 3 1.6402117e+09
10.969591 -7.4213877 -1.9014406 25 4 1.6402117e+09
7.8147831 -12.569639 -1.0765221 63 5 1.6402117e+09
5.0654573 4.1195221 -1.12308 17 1 1.6402117e+09
6.0288992 1.574906 -1.2225144 10 2 1.6402117e+09
7.7752185 -1.3597897 -1.4757516 18 3 1.6402117e+09
10.886629 -7.4319239 -1.8807012 26 4 1.6402117e+09
nan nan nan 0 5 1.6402117e+09
5.0719361 4.093998 -1.1282111 17 1 1.6402117e+09
6.0342178 1.5526921 -1.2246895 9 2 1.6402117e+09
7.7946382 -1.3940516 -1.4775822 18 3 1.6402117e+09
10.89683 -7.4975867 -1.8801317 28 4 1.6402117e+09
8.2128239 -13.428399 -1.1117464 35 5 1.6402117e+09
5.0711603 4.0613127 -1.1327385 15 1 1.6402117e+09
6.0155282 1.5232798 -1.2242004 9 2 1.6402117e+09
7.7744703 -1.4212725 -1.4762101 18 3 1.6402117e+09
10.837806 -7.5156522 -1.8652958 28 4 1.6402117e+09
8.1719112 -13.472194 -1.0963033 35 5 1.6402117e+09
5.0621037 4.0236945 -1.1332293 15 1 1.6402117e+09
6.0065303 1.4987098 -1.2212971 9 2 1.6402117e+09
7.7404714 -1.4443954 -1.4693277 19 3 1.6402117e+09
10.842661 -7.5808372 -1.8593525 28 4 1.6402117e+09
8.1281881 -13.506209 -1.0746416 35 5 1.6402117e+09
5.0134926 3.9565771 -1.1249937 15 1 1.6402117e+09
6.0066476 1.4742625 -1.2246475 9 2 1.6402117e+09
7.7257147 -1.4723614 -1.464748 20 3 1.6402117e+09
10.817992 -7.6171246 -1.8547342 28 4 1.6402117e+09
8.0843163 -13.545435 -1.0588033 35 5 1.6402117e+09
4.9727683 3.8949456 -1.1194657 15 1 1.6402117e+09
5.9875956 1.4452336 -1.2240921 12 2 1.6402117e+09
7.7583513 -1.5094761 -1.4734514 20 3 1.6402117e+09
10.784868 -7.658742 -1.8401893 28 4 1.6402117e+09
8.0504227 -13.601684 -1.0442615 34 5 1.6402117e+09
4.9548373 3.8516829 -1.1201535 16 1 1.6402117e+09
5.9306579 1.4074138 -1.2135501 13 2 1.6402117e+09
7.7814255 -1.5449983 -1.4789492 20 3 1.6402117e+09
10.748109 -7.6948905 -1.8318902 28 4 1.6402117e+09
8.046484 -13.703938 -1.0304506 33 5 1.6402117e+09
4.9376378 3.8079872 -1.1185671 16 1 1.6402117e+09
5.8969927 1.3755285 -1.2099674 15 2 1.6402117e+09
7.7997775 -1.5797956 -1.482142 20 3 1.6402117e+09
10.704802 -7.7233868 -1.81993 28 4 1.6402117e+09
7.9968295 -13.734414 -1.0110345 33 5 1.6402117e+09
4.9701648 3.8041034 -1.1295362 16 1 1.6402117e+09
5.8442397 1.3406568 -1.2003037 15 2 1.6402117e+09
7.8129096 -1.6137099 -1.4858037 20 3 1.6402117e+09
10.661165 -7.7514768 -1.8102969 29 4 1.6402117e+09
7.9893794 -13.838011 -0.99969864 33 5 1.6402117e+09
4.9206047 3.7376502 -1.120721 16 1 1.6402117e+09
5.8487301 1.3180683 -1.2034431 14 2 1.6402117e+09
7.81707 -1.6444654 -1.4848465 18 3 1.6402117e+09
10.644581 -7.8020725 -1.8008212 29 4 1.6402117e+09
7.9862723 -13.944817 -0.98568618 33 5 1.6402117e+09
4.9023976 3.694221 -1.1210829 15 1 1.6402117e+09
5.8772678 1.3008065 -1.2104645 12 2 1.6402117e+09
7.8344769 -1.6795663 -1.4908135 17 3 1.6402117e+09
10.617173 -7.8419652 -1.7893034 31 4 1.6402117e+09
7.9554124 -14.009749 -0.96845263 33 5 1.6402117e+09
4.8992081 3.6637423 -1.1238968 15 1 1.6402117e+09
5.8957601 1.2811725 -1.217634 12 2 1.6402117e+09
7.8327718 -1.7106849 -1.4917282 17 3 1.6402117e+09
10.589109 -7.8813848 -1.782392 32 4 1.6402117e+09
7.9510298 -14.122328 -0.95718169 32 5 1.6402117e+09
4.8878088 3.6273606 -1.1259133 15 1 1.6402117e+09
5.8998032 1.2583475 -1.2218456 12 2 1.6402117e+09
7.8122573 -1.7376586 -1.4861907 17 3 1.6402117e+09
10.567442 -7.928493 -1.7768131 32 4 1.6402117e+09
7.9240723 -14.190086 -0.9428156 32 5 1.6402117e+09
4.8769965 3.5903792 -1.126799 15 1 1.6402117e+09
5.8799839 1.2305348 -1.2200284 10 2 1.6402117e+09
7.8385811 -1.775128 -1.4953867 16 3 1.6402117e+09
10.550911 -7.976697 -1.7718872 36 4 1.6402117e+09
7.886991 -14.246094 -0.92750132 32 5 1.6402117e+09
4.8639569 3.555969 -1.1286733 15 1 1.6402117e+09
5.8454361 1.1998957 -1.2162337 10 2 1.6402117e+09
7.6925464 -1.7731361 -1.4702408 16 3 1.6402117e+09
10.542053 -8.0308924 -1.7682679 36 4 1.6402117e+09
7.8544025 -14.31076 -0.91268164 32 5 1.6402117e+09
4.8677239 3.5314188 -1.1352301 14 1 1.6402117e+09
5.7763166 1.1657588 -1.2063984 11 2 1.6402117e+09
7.7186785 -1.8103997 -1.4794166 18 3 1.6402117e+09
10.570595 -8.1169653 -1.773535 34 4 1.6402117e+09
7.83568 -14.401543 -0.90228194 31 5 1.6402117e+09
4.7665944 3.4593215 -1.1192394 15 1 1.6402117e+09
5.7406449 1.1585598 -1.2096018 10 2 1.6402117e+09
7.6109118 -1.7851231 -1.4728848 7 3 1.6402117e+09
10.460853 -8.0356007 -1.7764496 31 4 1.6402117e+09
7.813827 -14.361378 -0.91407716 32 5 1.6402117e+09
4.7813435 3.4981332 -1.1237059 14 1 1.6402117e+09
5.7309442 1.1795213 -1.2106328 10 2 1.6402117e+09
7.5060463 -1.7315274 -1.4583153 19 3 1.6402117e+09
10.468553 -7.9806757 -1.7914946 31 4 1.6402117e+09
7.8079095 -14.231938 -0.93599105 32 5 1.6402117e+09
4.789351 3.5297241 -1.1252496 15 1 1.6402117e+09
5.7459612 1.203534 -1.2146852 10 2 1.6402117e+09
7.3775077 -1.6720669 -1.4375553 20 3 1.6402117e+09
10.480178 -7.9289718 -1.8048544 31 4 1.6402117e+09
7.8303242 -14.155396 -0.95541304 32 5 1.6402117e+09
4.8036852 3.5688324 -1.1296651 15 1 1.6402117e+09
5.7456708 1.2265216 -1.2177491 10 2 1.6402117e+09
7.3581452 -1.6393476 -1.4407831 21 3 1.6402117e+09
10.503181 -7.8860121 -1.8225145 30 4 1.6402117e+09
7.8496923 -14.074196 -0.98000342 33 5 1.6402117e+09
4.8149624 3.6046741 -1.1299816 15 1 1.6402117e+09
5.745266 1.2516202 -1.2187639 11 2 1.6402117e+09
7.3586044 -1.6098174 -1.4451035 21 3 1.6402117e+09
10.536932 -7.8454075 -1.8392528 29 4 1.6402117e+09
7.8467159 -13.948437 -0.99567324 34 5 1.6402117e+09
4.8211718 3.6382935 -1.1314353 15 1 1.6402117e+09
5.7456427 1.2727262 -1.2197787 11 2 1.6402117e+09
7.3500824 -1.5784048 -1.4435894 20 3 1.6402117e+09
10.569297 -7.8151603 -1.8544056 29 4 1.6402117e+09
7.8774319 -13.889356 -1.0157961 34 5 1.6402117e+09
4.8242393 3.6684365 -1.1298293 15 1 1.6402117e+09
5.7506809 1.2970266 -1.2197506 14 2 1.6402117e+09
7.3358841 -1.5459131 -1.4450521 18 3 1.6402117e+09
10.596562 -7.7754102 -1.865876 28 4 1.6402117e+09
7.9102325 -13.828829 -1.0358194 33 5 1.6402117e+09
4.8497591 3.7173181 -1.1347268 14 1 1.6402117e+09
5.7456584 1.3190981 -1.2197506 15 2 1.6402117e+09
7.3119154 -1.512894 -1.443284 17 3 1.6402117e+09
10.625306 -7.7310753 -1.886519 27 4 1.6402117e+09
7.91785 -13.730716 -1.0527608 34 5 1.6402117e+09
4.863153 3.7573161 -1.1378994 13 1 1.6402117e+09
5.7310152 1.3389221 -1.2177244 17 2 1.6402117e+09
7.2979336 -1.4808023 -1.4420878 16 3 1.6402117e+09
10.633771 -7.6834321 -1.8928362 27 4 1.6402117e+09
7.9523287 -13.674445 -1.0728607 34 5 1.6402117e+09
4.8695316 3.7908268 -1.1370662 15 1 1.6402117e+09
5.7453003 1.365545 -1.2197155 17 2 1.6402117e+09
7.2785068 -1.447785 -1.442516 16 3 1.6402117e+09
10.533931 -7.5471168 -1.8858211 27 4 1.6402117e+09
7.9765439 -13.60657 -1.091839 34 5 1.6402117e+09
4.8478255 3.8039138 -1.1309525 15 1 1.6402117e+09
5.7352557 1.3864448 -1.2187041 16 2 1.6402117e+09
7.2543683 -1.4140486 -1.4406617 16 3 1.6402117e+09
10.136543 -7.2063293 -1.8232405 32 4 1.6402117e+09
8.0028095 -13.542799 -1.1137874 35 5 1.6402117e+09
4.8732076 3.8527722 -1.1345576 15 1 1.6402117e+09
5.7203798 1.4061186 -1.2166814 15 2 1.6402117e+09
7.2399688 -1.3824075 -1.4394082 16 3 1.6402117e+09
10.189878 -7.1881676 -1.8392001 32 4 1.6402117e+09
8.0363741 -13.486493 -1.13085 35 5 1.6402117e+09
4.8705378 3.881145 -1.132905 15 1 1.6402117e+09
5.7343535 1.4329244 -1.2186637 9 2 1.6402117e+09
7.2153072 -1.3503081 -1.437502 16 3 1.6402117e+09
10.234831 -7.1638441 -1.8559314 32 4 1.6402117e+09
nan nan nan 0 5 1.6402117e+09
4.857049 3.8995879 -1.1274698 15 1 1.6402117e+09
5.7667794 1.4645754 -1.226741 9 2 1.6402117e+09
7.1518879 -1.3100367 -1.4291259 18 3 1.6402117e+09
9.8704481 -6.8524785 -1.8000787 27 4 1.6402117e+09
7.5808458 -12.517464 -1.0952046 42 5 1.6402117e+09
4.8709555 3.9387944 -1.1282376 13 1 1.6402117e+09
5.7804961 1.4917092 -1.2286959 9 2 1.6402117e+09
7.0986714 -1.2721369 -1.4188126 18 3 1.6402117e+09
9.8130245 -6.7594461 -1.7935824 27 4 1.6402117e+09
7.5952177 -12.442965 -1.108911 38 5 1.6402117e+09
4.8952508 3.9882023 -1.1326926 12 1 1.6402117e+09
5.7796702 1.51519 -1.2286611 9 2 1.6402117e+09
7.1172667 -1.2472826 -1.4254918 18 3 1.6402117e+09
9.7053156 -6.632935 -1.7841303 27 4 1.6402117e+09
7.5954332 -12.341372 -1.1252282 35 5 1.6402117e+09
4.9643526 4.076314 -1.1465101 12 1 1.6402117e+09
5.7694907 1.5362211 -1.2255698 8 2 1.6402117e+09
7.1215124 -1.219861 -1.4280139 18 3 1.6402117e+09
9.6426163 -6.5383639 -1.7765088 27 4 1.6402117e+09
7.6057191 -12.257214 -1.1378207 35 5 1.6402117e+09
4.9804935 4.120223 -1.1478982 11 1 1.6402117e+09
5.7455907 1.5513551 -1.219471 8 2 1.6402117e+09
7.0097938 -1.1730372 -1.4059874 21 3 1.6402117e+09
9.6171465 -6.4673276 -1.7775786 29 4 1.6402117e+09
7.6133623 -12.174468 -1.1502533 35 5 1.6402117e+09
4.9576874 4.133522 -1.1416436 10 1 1.6402117e+09
5.7628655 1.5819483 -1.2234464 8 2 1.6402117e+09
6.9075112 -1.1286726 -1.385862 21 3 1.6402117e+09
9.5734625 -6.3871207 -1.7775028 29 4 1.6402117e+09
7.6225176 -12.090308 -1.1650203 35 5 1.6402117e+09
4.9735827 4.1777711 -1.1418089 8 1 1.6402117e+09
5.7760358 1.6094385 -1.2253647 8 2 1.6402117e+09
6.871902 -1.0970103 -1.3829513 23 3 1.6402117e+09
9.4428158 -6.2500629 -1.7611235 25 4 1.6402117e+09
7.237443 -11.382417 -1.1208091 35 5 1.6402117e+09
5.0033722 4.2356672 -1.1464764 8 1 1.6402117e+09
5.7750969 1.6309221 -1.2263659 8 2 1.6402117e+09
6.8709793 -1.0698243 -1.3831903 23 3 1.6402117e+09
9.3239746 -6.1223774 -1.7447335 25 4 1.6402117e+09
7.2476382 -11.315404 -1.130741 35 5 1.6402117e+09
5.0110617 4.2738042 -1.1458977 8 1 1.6402117e+09
5.7503653 1.6478046 -1.2202734 8 2 1.6402117e+09
6.8602533 -1.0411901 -1.381475 21 3 1.6402117e+09
9.2594671 -6.029264 -1.7362213 25 4 1.6402117e+09
7.2646165 -11.255213 -1.1460924 34 5 1.6402117e+09
4.9962711 4.2929215 -1.1390002 8 1 1.6402117e+09
5.7584305 1.6751586 -1.2201316 10 2 1.6402117e+09
6.839231 -1.0111495 -1.3802136 19 3 1.6402117e+09
9.2052994 -5.9460626 -1.7337276 23 4 1.6402117e+09
7.3088593 -11.224609 -1.1647958 34 5 1.6402117e+09
5.0101504 4.338398 -1.1411889 8 1 1.6402117e+09
5.7850566 1.7070241 -1.2260569 11 2 1.6402117e+09
6.8088531 -0.9799577 -1.3745621 18 3 1.6402117e+09
9.1259699 -5.8475285 -1.7244353 23 4 1.6402117e+09
7.3417444 -11.189501 -1.1802808 34 5 1.6402117e+09
5.0358157 4.3930216 -1.1446906 8 1 1.6402117e+09
5.7513027 1.7189106 -1.2179857 11 2 1.6402117e+09
6.782958 -0.94966114 -1.3710746 15 3 1.6402117e+09
9.0848274 -5.7720814 -1.7201658 23 4 1.6402117e+09
7.3708014 -11.144517 -1.1971811 34 5 1.6402117e+09
5.0716348 4.4586773 -1.1494381 6 1 1.6402117e+09
5.754446 1.7439471 -1.2178754 11 2 1.6402117e+09
6.7615552 -0.92020732 -1.3697406 14 3 1.6402117e+09
9.1210985 -5.7483096 -1.7346134 20 4 1.6402117e+09
7.3886857 -11.083056 -1.209886 36 5 1.6402117e+09
5.1421747 4.5510116 -1.1651398 6 1 1.6402117e+09
5.7900715 1.7790463 -1.2257514 10 2 1.6402117e+09
6.7405028 -0.89099473 -1.3660073 14 3 1.6402117e+09
8.8768902 -5.5490513 -1.69554 26 4 1.6402117e+09
7.4097204 -11.030985 -1.2257277 37 5 1.6402117e+09
nan nan nan 0 1 1.6402117e+09
5.7929649 1.8043076 -1.2256169 10 2 1.6402117e+09
6.7240386 -0.86375493 -1.3632511 13 3 1.6402117e+09
8.8749371 -5.5026941 -1.7006563 26 4 1.6402117e+09
7.4464655 -10.998383 -1.2414966 37 5 1.6402117e+09
5.149878 4.6272149 -1.161051 4 1 1.6402117e+09
5.7632341 1.8193526 -1.2175026 10 2 1.6402117e+09
6.7076135 -0.83547741 -1.3604879 13 3 1.6402117e+09
8.8571548 -5.4446969 -1.7006817 26 4 1.6402117e+09
7.5345674 -11.045261 -1.2638745 38 5 1.6402117e+09
5.1630349 4.6733503 -1.1603745 4 1 1.6402117e+09
5.7005849 1.8236747 -1.2035644 11 2 1.6402117e+09
6.6857343 -0.80669487 -1.3590813 15 3 1.6402117e+09
8.8086329 -5.3704839 -1.6949699 23 4 1.6402117e+09
7.7853465 -11.323515 -1.3207521 35 5 1.6402117e+09
nan nan nan 0 1 1.6402117e+09
5.7870035 1.8758457 -1.2222171 11 2 1.6402117e+09
6.664207 -0.77814806 -1.3553066 15 3 1.6402117e+09
8.7558956 -5.2923203 -1.6919045 23 4 1.6402117e+09
7.7863226 -11.236495 -1.3283718 35 5 1.6402117e+09
5.209218 4.786767 -1.1661085 8 1 1.6402117e+09
5.7943392 1.9028406 -1.2219784 13 2 1.6402117e+09
6.6374564 -0.74920255 -1.3516984 15 3 1.6402117e+09
8.7271757 -5.2313848 -1.6935873 22 4 1.6402117e+09
7.8215809 -11.203635 -1.3469677 35 5 1.6402117e+09
5.1597958 4.7763505 -1.1526544 15 1 1.6402117e+09
5.7414055 1.9087986 -1.2089877 15 2 1.6402117e+09
6.605948 -0.71996886 -1.345916 16 3 1.6402117e+09
8.6901646 -5.1659985 -1.6899735 22 4 1.6402117e+09
7.9017186 -11.230504 -1.3706125 35 5 1.6402117e+09
5.1178699 4.7724905 -1.1396648 21 1 1.6402117e+09
5.6457462 1.9011006 -1.1903728 16 2 1.6402117e+09
6.5840631 -0.69201291 -1.3421087 16 3 1.6402117e+09
8.6152029 -5.0767674 -1.6805642 23 4 1.6402117e+09
7.9474678 -11.208012 -1.3907913 33 5 1.6402117e+09
5.1507306 4.8402424 -1.1435156 15 1 1.6402117e+09
5.6204295 1.9166347 -1.1833447 21 2 1.6402117e+09
6.5718126 -0.66522282 -1.3402815 19 3 1.6402117e+09
8.5573559 -4.9965086 -1.6760259 23 4 1.6402117e+09
7.9913321 -11.186907 -1.4085959 33 5 1.6402117e+09
nan nan nan 0 1 1.6402117e+09
5.641427 1.9480076 -1.186083 21 2 1.6402117e+09
6.5545783 -0.63806236 -1.3374537 19 3 1.6402117e+09
8.517416 -4.9353871 -1.6720587 23 4 1.6402117e+09
8.0516081 -11.184389 -1.4290011 31 5 1.6402117e+09
5.2024455 4.9611521 -1.1488814 9 1 1.6402117e+09
5.727088 2.0022316 -1.2023983 19 2 1.6402117e+09
6.5325856 -0.61060977 -1.332478 18 3 1.6402117e+09
8.4797277 -4.8701534 -1.6680012 20 4 1.6402117e+09
8.123786 -11.197864 -1.4491619 30 5 1.6402117e+09
5.2151847 5.0064263 -1.1488856 9 1 1.6402117e+09
5.7944503 2.0485086 -1.2158055 17 2 1.6402117e+09
6.514667 -0.58371079 -1.3319225 17 3 1.6402117e+09
8.4579639 -4.8165145 -1.6672301 20 4 1.6402117e+09
7.8682494 -10.766362 -1.4156919 34 5 1.6402117e+09
5.2145333 5.0444179 -1.1452124 23 1 1.6402117e+09
5.7767825 2.069525 -1.2127938 16 2 1.6402117e+09
6.5067687 -0.55897087 -1.331067 17 3 1.6402117e+09
8.3907013 -4.7317767 -1.6604354 22 4 1.6402117e+09
7.8948336 -10.720038 -1.4298469 34 5 1.6402117e+09
5.1862526 5.053988 -1.1352911 23 1 1.6402117e+09
5.7474213 2.0805373 -1.2047464 16 2 1.6402117e+09
6.4893355 -0.53238022 -1.3270729 17 3 1.6402117e+09
8.3209696 -4.6523385 -1.6501048 23 4 1.6402117e+09
7.9004397 -10.645712 -1.4401714 34 5 1.6402117e+09
5.175591 5.0807147 -1.1292455 9 1 1.6402117e+09
5.6708808 2.0774925 -1.1870809 16 2 1.6402117e+09
6.4764481 -0.50629556 -1.3252109 17 3 1.6402117e+09
8.2847023 -4.5941758 -1.6448318 23 4 1.6402117e+09
7.8905697 -10.55138 -1.4499292 34 5 1.6402117e+09
5.2245283 5.1664929 -1.1361672 8 1 1.6402117e+09
5.64044 2.0909398 -1.1791097 16 2 1.6402117e+09
6.4683428 -0.48068088 -1.3243442 16 3 1.6402117e+09
8.2270975 -4.5228853 -1.6368457 23 4 1.6402117e+09
7.8935447 -10.478892 -1.4576522 34 5 1.6402117e+09
5.3146515 5.2942834 -1.1546164 5 1 1.6402117e+09
5.6501999 2.1215198 -1.1819034 16 2 1.6402117e+09
6.4501333 -0.45443118 -1.3226004 15 3 1.6402117e+09
8.1839037 -4.4545999 -1.6345811 23 4 1.6402117e+09
7.9461727 -10.461111 -1.4804978 34 5 1.6402117e+09
5.3369927 5.3575244 -1.1558253 5 1 1.6402117e+09
5.6846304 2.1571181 -1.187368 12 2 1.6402117e+09
6.4320498 -0.42834386 -1.3197175 15 3 1.6402117e+09
8.1645012 -4.4053259 -1.6341467 23 4 1.6402117e+09
7.9895539 -10.43857 -1.4953842 35 5 1.6402117e+09
5.30093 5.3604746 -1.1428386 5 1 1.6402117e+09
5.7139225 2.192225 -1.1918304 12 2 1.6402117e+09
6.4140925 -0.40241656 -1.3157063 15 3 1.6402117e+09
8.1195593 -4.3409057 -1.6284313 23 4 1.6402117e+09
8.0322618 -10.422576 -1.5108601 35 5 1.6402117e+09
5.2767529 5.3715377 -1.1360832 9 1 1.6402117e+09
5.7197719 2.2197018 -1.1914854 12 2 1.6402117e+09
6.3860221 -0.37604421 -1.3108058 16 3 1.6402117e+09
8.0891619 -4.2902236 -1.6277144 23 4 1.6402117e+09
8.0753622 -10.399446 -1.528088 35 5 1.6402117e+09
5.4355731 5.5778236 -1.1653584 9 1 1.6402117e+09
5.743772 2.2544296 -1.194927 12 2 1.6402117e+09
6.3629646 -0.35017511 -1.3057874 17 3 1.6402117e+09
8.1406641 -4.2739439 -1.6427395 20 4 1.6402117e+09
8.1140776 -10.366885 -1.5441729 35 5 1.6402117e+09
5.3799133 5.5574589 -1.1504699 6 1 1.6402117e+09
5.7445865 2.2802436 -1.194671 11 2 1.6402117e+09
6.3446946 -0.32473904 -1.3017727 18 3 1.6402117e+09
7.9415803 -4.1323633 -1.6043361 24 4 1.6402117e+09
8.1383781 -10.319778 -1.5601951 35 5 1.6402117e+09
5.3653831 5.5871558 -1.1424781 7 1 1.6402117e+09
5.7226992 2.2970304 -1.1885955 11 2 1.6402117e+09
6.3310943 -0.29745939 -1.2998679 18 3 1.6402117e+09
7.9563918 -4.101326 -1.6105857 22 4 1.6402117e+09
8.178215 -10.292481 -1.5745519 35 5 1.6402117e+09
5.3816586 5.6414323 -1.1429701 10 1 1.6402117e+09
5.7375679 2.3274519 -1.1900855 11 2 1.6402117e+09
6.3169618 -0.27469987 -1.2990615 18 3 1.6402117e+09
7.9961529 -4.0847964 -1.6253021 18 4 1.6402117e+09
8.2082968 -10.252962 -1.5917026 35 5 1.6402117e+09
5.3743839 5.6772938 -1.1376852 10 1 1.6402117e+09
5.7655115 2.3646085 -1.1943729 11 2 1.6402117e+09
6.3130755 -0.25024852 -1.2980553 18 3 1.6402117e+09
7.7432518 -3.9181855 -1.5755209 20 4 1.6402117e+09
8.2459259 -10.226589 -1.608355 35 5 1.6402117e+09
5.3916297 5.7374873 -1.1373615 9 1 1.6402117e+09
5.788722 2.4001348 -1.1976802 11 2 1.6402117e+09
6.3088689 -0.22582297 -1.2981509 18 3 1.6402117e+09
7.7213988 -3.8716466 -1.5744061 20 4 1.6402117e+09
8.2728987 -10.183431 -1.6202726 35 5 1.6402117e+09
5.4289036 5.8197498 -1.1397916 9 1 1.6402117e+09
5.7940927 2.4260981 -1.1993998 11 2 1.6402117e+09
6.2998996 -0.20128424 -1.2961367 18 3 1.6402117e+09
7.7041402 -3.8260443 -1.5756373 22 4 1.6402117e+09
8.3057652 -10.147661 -1.6356822 34 5 1.6402117e+09
5.4419785 5.876802 -1.1384931 8 1 1.6402117e+09
5.7986465 2.4554093 -1.1978171 11 2 1.6402117e+09
6.2908349 -0.17681774 -1.2941225 17 3 1.6402117e+09
7.7127104 -3.7951241 -1.5807378 23 4 1.6402117e+09
8.3386517 -10.111997 -1.6487895 34 5 1.6402117e+09
5.4580617 5.9376769 -1.1377878 8 1 1.6402117e+09
5.7946506 2.4799998 -1.1932516 11 2 1.6402117e+09
6.2963634 -0.15278023 -1.2951295 17 3 1.6402117e+09
7.6781054 -3.741545 -1.573772 23 4 1.6402117e+09
8.3682098 -10.072401 -1.6612555 34 5 1.6402117e+09
5.4671025 5.9914398 -1.1355809 8 1 1.6402117e+09
5.7944856 2.5062973 -1.1929079 11 2 1.6402117e+09
6.2817631 -0.12829365 -1.2943015 17 3 1.6402117e+09
7.6203299 -3.6772501 -1.5666598 21 4 1.6402117e+09
8.3908415 -10.024663 -1.6769931 34 5 1.6402117e+09
5.4824729 6.052691 -1.1346556 9 1 1.6402117e+09
5.8083458 2.5376036 -1.1942309 11 2 1.6402117e+09
6.2577267 -0.10376655 -1.2892575 17 3 1.6402117e+09
7.5529361 -3.6106596 -1.556119 21 4 1.6402117e+09
8.4040136 -9.9659576 -1.6861924 33 5 1.6402117e+09
5.4941611 6.1104569 -1.1329321 9 1 1.6402117e+09
5.8081217 2.5641088 -1.1927583 11 2 1.6402117e+09
6.2582898 -0.080833033 -1.2881651 17 3 1.6402117e+09
7.4949226 -3.547636 -1.545841 21 4 1.6402117e+09
8.3749447 -9.8579435 -1.6891693 29 5 1.6402117e+09
5.5208545 6.1812501 -1.1338142 9 1 1.6402117e+09
5.8178511 2.5927079 -1.1920047 11 2 1.6402117e+09
6.2487597 -0.056713503 -1.2861491 17 3 1.6402117e+09
7.4452076 -3.4891748 -1.538753 20 4 1.6402117e+09
8.3228321 -9.7241459 -1.685093 28 5 1.6402117e+09
5.5581107 6.2690606 -1.1372402 9 1 1.6402117e+09
5.8223238 2.620321 -1.1914212 13 2 1.6402117e+09
6.2533789 -0.032742914 -1.2893401 18 3 1.6402117e+09
7.3809543 -3.4261248 -1.5302188 20 4 1.6402117e+09
8.3487101 -9.6857347 -1.7016439 26 5 1.6402117e+09
5.5817122 6.3423581 -1.1378086 9 1 1.6402117e+09
5.8443007 2.657244 -1.1933596 13 2 1.6402117e+09
6.2534585 -0.0087314807 -1.2893401 18 3 1.6402117e+09
7.3084989 -3.3584435 -1.5168735 19 4 1.6402117e+09
8.3798056 -9.6568708 -1.7128022 26 5 1.6402117e+09
5.5789018 6.3862095 -1.1314533 12 1 1.6402117e+09
5.8748293 2.6983933 -1.1981986 13 2 1.6402117e+09
6.2438817 0.013077175 -1.286231 18 3 1.6402117e+09
7.2300301 -3.2918668 -1.5025011 19 4 1.6402117e+09
8.4170218 -9.6282406 -1.7290915 26 5 1.6402117e+09
5.5789638 6.4337211 -1.1271653 12 1 1.6402117e+09
5.8878665 2.7293103 -1.2016218 12 2 1.6402117e+09
6.2437859 0.037051801 -1.286231 18 3 1.6402117e+09
7.1734414 -3.2344122 -1.4968044 19 4 1.6402117e+09
8.5001678 -9.6517305 -1.7526096 29 5 1.6402117e+09
5.6004243 6.5019064 -1.1267087 8 1 1.6402117e+09
5.891942 2.7574797 -1.1998115 12 2 1.6402117e+09
6.2338037 0.060930163 -1.2842134 18 3 1.6402117e+09
7.185091 -3.2065246 -1.5009243 17 4 1.6402117e+09
8.5338545 -9.6186714 -1.7705655 29 5 1.6402117e+09
5.6320944 6.5873475 -1.1286988 8 1 1.6402117e+09
5.8865128 2.7825418 -1.1961732 12 2 1.6402117e+09
6.2237301 0.084732413 -1.2821958 18 3 1.6402117e+09
7.1915832 -3.1778653 -1.5041044 16 4 1.6402117e+09
8.5418196 -9.5568619 -1.7740581 29 5 1.6402117e+09
5.6600127 6.6693363 -1.1298705 8 1 1.6402117e+09
5.881278 2.8064857 -1.1936647 12 2 1.6402117e+09
6.2081847 0.11053199 -1.2813369 19 3 1.6402117e+09
7.1363735 -3.1178045 -1.4954493 16 4 1.6402117e+09
8.5782394 -9.5204144 -1.7941902 28 5 1.6402117e+09
5.6769829 6.7344732 -1.1283337 8 1 1.6402117e+09
5.8854909 2.8337605 -1.1918073 9 2 1.6402117e+09
6.1984158 0.13200291 -1.2771518 19 3 1.6402117e+09
7.1104455 -3.0769644 -1.491963 16 4 1.6402117e+09
8.5954027 -9.4760838 -1.8025823 26 5 1.6402117e+09
5.7080541 6.826756 -1.1288986 11 1 1.6402117e+09
5.900856 2.8716681 -1.1926107 9 2 1.6402117e+09
6.1980863 0.1558077 -1.2760696 19 3 1.6402117e+09
7.1079493 -3.0435345 -1.4931754 15 4 1.6402117e+09
8.6185179 -9.4252577 -1.8153967 25 5 1.6402117e+09
5.7502789 6.9287043 -1.1326847 11 1 1.6402117e+09
5.917346 2.9065657 -1.1945231 9 2 1.6402117e+09
6.2023373 0.1797473 -1.2770777 19 3 1.6402117e+09
7.0470653 -2.9840465 -1.4820136 13 4 1.6402117e+09
8.6483583 -9.3885622 -1.8280613 24 5 1.6402117e+09
5.7722049 7.002244 -1.1319193 11 1 1.6402117e+09
5.9564075 2.9516053 -1.1996882 9 2 1.6402117e+09
6.2064958 0.20372184 -1.2780856 18 3 1.6402117e+09
6.9974031 -2.9342544 -1.4762778 13 4 1.6402117e+09
8.6139879 -9.2892427 -1.8300725 24 5 1.6402117e+09
5.7637672 7.0494747 -1.1245085 11 1 1.6402117e+09
6.0508747 3.0287313 -1.2162766 10 2 1.6402117e+09
6.2150087 0.22789402 -1.2822726 17 3 1.6402117e+09
6.9409142 -2.8764398 -1.4658885 16 4 1.6402117e+09
8.4807348 -9.0722284 -1.8095028 22 5 1.6402117e+09
5.7880278 7.1272483 -1.1240865 9 1 1.6402117e+09
5.9485726 3.0035372 -1.1942117 10 2 1.6402117e+09
6.2192049 0.25196353 -1.2821958 17 3 1.6402117e+09
6.8861532 -2.8270257 -1.4563817 16 4 1.6402117e+09
8.3876371 -8.9132023 -1.7942311 20 5 1.6402117e+09
5.83113 7.2343459 -1.1277243 9 1 1.6402117e+09
5.9289665 3.0222628 -1.1878021 10 2 1.6402117e+09
6.2035146 0.27519053 -1.2791693 17 3 1.6402117e+09
6.8780661 -2.7928929 -1.4564286 15 4 1.6402117e+09
8.3081837 -8.7611208 -1.7829434 20 5 1.6402117e+09
5.8254309 7.2791338 -1.1183223 9 1 1.6402117e+09
5.9492302 3.0601146 -1.1892816 10 2 1.6402117e+09
6.1884046 0.29833296 -1.2728992 16 3 1.6402117e+09
6.8470578 -2.7497237 -1.4516287 15 4 1.6402117e+09
8.2432899 -8.6291246 -1.7749896 20 5 1.6402117e+09
5.83044 7.3403802 -1.1128253 9 1 1.6402117e+09
5.9556494 3.0923922 -1.1880975 11 2 1.6402117e+09
6.186769 0.32206935 -1.2750617 16 3 1.6402117e+09
6.8158259 -2.7068362 -1.4467822 16 4 1.6402117e+09
8.180316 -8.494669 -1.7688023 23 5 1.6402117e+09
5.8718495 7.4484057 -1.1158609 7 1 1.6402117e+09
5.9613643 3.1258056 -1.1868854 12 2 1.6402117e+09
6.1806974 0.34771889 -1.2729734 14 3 1.6402117e+09
6.7800379 -2.6611638 -1.4421899 16 4 1.6402117e+09
8.1307106 -8.3814564 -1.7660123 23 5 1.6402117e+09
5.896822 7.5313177 -1.1151924 7 1 1.6402117e+09
5.9685616 3.1561906 -1.185645 14 2 1.6402117e+09
6.1696692 0.36870715 -1.2709593 14 3 1.6402117e+09
6.7019563 -2.6035552 -1.4262476 18 4 1.6402117e+09
8.0952168 -8.2896843 -1.762666 23 5 1.6402117e+09
5.9370613 7.6402364 -1.1161104 7 1 1.6402117e+09
5.9576826 3.1784341 -1.1809311 17 2 1.6402117e+09
6.1688709 0.39243639 -1.2677228 15 3 1.6402117e+09
6.6516933 -2.5546777 -1.4173312 18 4 1.6402117e+09
8.0687895 -8.2022648 -1.7626839 20 5 1.6402117e+09
5.9920793 7.7752571 -1.1201609 7 1 1.6402117e+09
5.954833 3.206347 -1.1779325 17 2 1.6402117e+09
6.1673188 0.41612023 -1.2677228 15 3 1.6402117e+09
6.6524711 -2.5230517 -1.4191058 18 4 1.6402117e+09
8.0235815 -8.0910826 -1.7599491 20 5 1.6402117e+09
6.0351682 7.8879638 -1.1210661 11 1 1.6402117e+09
5.9827237 3.249706 -1.1809009 16 2 1.6402117e+09
6.1605692 0.43943366 -1.2677963 15 3 1.6402117e+09
6.6605115 -2.4982162 -1.4253141 18 4 1.6402117e+09
7.9680753 -7.9764233 -1.7534398 20 5 1.6402117e+09
6.0519977 7.970324 -1.1189989 11 1 1.6402117e+09
6.0094447 3.2941656 -1.1861993 16 2 1.6402117e+09
6.1591382 0.46202689 -1.2667183 15 3 1.6402117e+09
6.6509686 -2.4655478 -1.4250991 18 4 1.6402117e+09
7.9048471 -7.8553352 -1.745133 7 5 1.6402117e+09
6.0471816 8.0190554 -1.1123711 8 1 1.6402117e+09
6.0233445 3.3319263 -1.1865106 16 2 1.6402117e+09
6.1622014 0.48605794 -1.2677228 14 3 1.6402117e+09
6.632071 -2.4296186 -1.4228883 18 4 1.6402117e+09
7.8303142 -7.7244344 -1.7342191 7 5 1.6402117e+09
6.0542955 8.0900002 -1.1066318 8 1 1.6402117e+09
6.0379958 3.3689919 -1.1843665 11 2 1.6402117e+09
6.1365409 0.50775045 -1.2594762 13 3 1.6402117e+09
6.627058 -2.3989615 -1.4223864 18 4 1.6402117e+09
7.7635517 -7.5999775 -1.7226752 20 5 1.6402117e+09
6.0934572 8.2048464 -1.1084496 6 1 1.6402117e+09
6.060689 3.4108431 -1.186265 9 2 1.6402117e+09
6.1250038 0.53048283 -1.2563994 13 3 1.6402117e+09
6.6032171 -2.3616939 -1.4191345 18 4 1.6402117e+09
7.6979923 -7.4807439 -1.7135581 20 5 1.6402117e+09
6.2352133 8.4603281 -1.1268799 10 1 1.6402117e+09
6.0907698 3.4586327 -1.1922275 9 2 1.6402117e+09
6.1324611 0.55486023 -1.2594762 13 3 1.6402117e+09
6.574574 -2.3230145 -1.414852 18 4 1.6402117e+09
7.6385789 -7.3687644 -1.7076093 11 5 1.6402117e+09
6.215374 8.4953423 -1.1137826 10 1 1.6402117e+09
6.0632315 3.4696352 -1.1815566 15 2 1.6402117e+09
6.1209679 0.57752395 -1.2553263 13 3 1.6402117e+09
6.5447721 -2.2881002 -1.4093181 16 4 1.6402117e+09
7.6252422 -7.3021321 -1.7080865 11 5 1.6402117e+09
6.2229705 8.5714741 -1.1076821 10 1 1.6402117e+09
6.0153813 3.4757824 -1.1688235 15 2 1.6402117e+09
6.1237988 0.6015228 -1.2552526 13 3 1.6402117e+09
6.5258117 -2.2508399 -1.4069568 16 4 1.6402117e+09
7.6289768 -7.2522917 -1.7161566 11 5 1.6402117e+09
6.2446284 8.6679535 -1.1039917 10 1 1.6402117e+09
6.0640101 3.5307553 -1.1767632 14 2 1.6402117e+09
6.1362839 0.62654722 -1.2571744 13 3 1.6402117e+09
6.4919739 -2.2113125 -1.401561 17 4 1.6402117e+09
nan nan nan 0 5 1.6402117e+09
6.2612972 8.7553692 -1.1009439 11 1 1.6402117e+09
6.1274796 3.5992846 -1.1879277 14 2 1.6402117e+09
6.1579733 0.65266275 -1.2632477 12 3 1.6402117e+09
6.457705 -2.1720033 -1.3973078 17 4 1.6402117e+09
nan nan nan 0 5 1.6402117e+09
6.2299385 8.7793484 -1.0877926 14 1 1.6402117e+09
6.1437483 3.6420918 -1.1862197 13 2 1.6402117e+09
6.1512079 0.67583984 -1.2590084 12 3 1.6402117e+09
6.4518213 -2.1424839 -1.3954808 18 4 1.6402117e+09
7.1768074 -6.6667671 -1.6286657 16 5 1.6402117e+09
6.4220114 9.1206694 -1.1114275 14 1 1.6402117e+09
6.1528802 3.6765912 -1.1853122 13 2 1.6402117e+09
6.129313 0.69726336 -1.2539445 12 3 1.6402117e+09
6.459537 -2.1175432 -1.3978537 18 4 1.6402117e+09
7.1760826 -6.6218982 -1.632267 16 5 1.6402117e+09
6.42946 9.1958771 -1.1061224 13 1 1.6402117e+09
6.1571507 3.7098353 -1.1823026 13 2 1.6402117e+09
6.1316738 0.72139102 -1.2538629 12 3 1.6402117e+09
6.4669228 -2.092499 -1.4014128 15 4 1.6402117e+09
7.1774354 -6.574604 -1.6358155 13 5 1.6402117e+09
6.4746943 9.3297548 -1.1054929 10 1 1.6402117e+09
6.1610847 3.7430532 -1.1805159 11 2 1.6402117e+09
6.1242118 0.7443648 -1.2517911 12 3 1.6402117e+09
6.4507608 -2.0611815 -1.3987285 15 4 1.6402117e+09
7.1575785 -6.5060477 -1.6360013 13 5 1.6402117e+09
nan nan nan 0 1 1.6402117e+09
6.1894445 3.7928963 -1.1835285 11 2 1.6402117e+09
6.1263866 0.76851165 -1.2517077 13 3 1.6402117e+09
6.4201074 -2.0242522 -1.3965125 15 4 1.6402117e+09
6.9641852 -6.2837982 -1.5966282 15 5 1.6402117e+09
nan nan nan 0 1 1.6402117e+09
6.2099676 3.8368514 -1.1835954 12 2 1.6402117e+09
6.148046 0.79412758 -1.2555928 13 3 1.6402117e+09
6.4091339 -1.9937687 -1.39245 15 4 1.6402117e+09
6.9494185 -6.2244177 -1.5963804 15 5 1.6402117e+09
6.797574 10.024892 -1.1321443 13 1 1.6402117e+09
6.2210245 3.8767676 -1.1832799 13 2 1.6402117e+09
6.1650352 0.82040113 -1.2563069 13 3 1.6402117e+09
6.4066839 -1.9660584 -1.3939277 15 4 1.6402117e+09
6.9388661 -6.1671138 -1.5985129 11 5 1.6402117e+09
6.7976799 10.104582 -1.1233158 12 1 1.6402117e+09
6.241087 3.9211004 -1.1832228 14 2 1.6402117e+09
6.1616225 0.84403729 -1.2573923 13 3 1.6402117e+09
6.4090352 -1.9398849 -1.395247 16 4 1.6402117e+09
6.9160404 -6.1016011 -1.5963804 11 5 1.6402117e+09
6.8387561 10.246531 -1.121125 12 1 1.6402117e+09
6.2607384 3.9655259 -1.1843894 18 2 1.6402117e+09
6.1490636 0.86638343 -1.2532431 13 3 1.6402117e+09
6.4061222 -1.9121832 -1.3978748 16 4 1.6402117e+09
6.8518653 -6.0004668 -1.5863053 12 5 1.6402117e+09
6.8834505 10.391875 -1.1190388 14 1 1.6402117e+09
6.2796259 4.0113573 -1.1841997 18 2 1.6402117e+09
6.1511912 0.89078414 -1.250978 16 3 1.6402117e+09
6.3897085 -1.8805934 -1.3939207 14 4 1.6402117e+09
6.805028 -5.9092679 -1.5794436 12 5 1.6402117e+09
6.9362144 10.555362 -1.1205665 14 1 1.6402117e+09
6.2949877 4.0537333 -1.1818531 17 2 1.6402117e+09
6.1673355 0.91731316 -1.253836 16 3 1.6402117e+09
6.3729157 -1.8490911 -1.3911161 14 4 1.6402117e+09
6.7547278 -5.8223 -1.5708277 12 5 1.6402117e+09
7.0135002 10.750484 -1.1230017 14 1 1.6402117e+09
6.3265247 4.1069236 -1.1838467 15 2 1.6402117e+09
6.1688299 0.94176 -1.2537327 16 3 1.6402117e+09
6.3465691 -1.8150554 -1.3862392 14 4 1.6402117e+09
6.5839825 -5.6331964 -1.5356661 13 5 1.6402117e+09
7.0911736 10.957091 -1.1257956 14 1 1.6402117e+09
6.3497009 4.1535449 -1.1881757 15 2 1.6402117e+09
6.1607571 0.9647488 -1.2505711 14 3 1.6402117e+09
6.3145747 -1.7808943 -1.382599 14 4 1.6402117e+09
6.5950794 -5.6029358 -1.5414735 13 5 1.6402117e+09
7.1549387 11.149241 -1.1217457 14 1 1.6402117e+09
6.3506784 4.1906824 -1.181975 15 2 1.6402117e+09
6.1669035 0.98998594 -1.2514474 13 3 1.6402117e+09
6.2843375 -1.7428011 -1.3754891 14 4 1.6402117e+09
6.5974612 -5.559515 -1.5461248 12 5 1.6402117e+09
7.1961913 11.295756 -1.1199552 16 1 1.6402117e+09
6.3703542 4.234056 -1.1827753 14 2 1.6402117e+09
6.1931248 1.017493 -1.2529598 12 3 1.6402117e+09
6.2613082 -1.7140749 -1.3715639 17 4 1.6402117e+09
6.5790119 -5.5028591 -1.5447905 12 5 1.6402117e+09
nan nan nan 0 1 1.6402117e+09
6.395957 4.2865715 -1.1836973 12 2 1.6402117e+09
6.199059 1.0429286 -1.2538205 12 3 1.6402117e+09
6.2484889 -1.6848018 -1.3696887 17 4 1.6402117e+09
6.5460477 -5.4327035 -1.5398066 12 5 1.6402117e+09
nan nan nan 0 1 1.6402117e+09
6.4341288 4.3464131 -1.1881537 12 2 1.6402117e+09
6.1903915 1.0659286 -1.2517462 12 3 1.6402117e+09
6.2355404 -1.6556534 -1.3677996 16 4 1.6402117e+09
6.5001225 -5.3544774 -1.5334865 12 5 1.6402117e+09
nan nan nan 0 1 1.6402117e+09
6.4806423 4.4125123 -1.1899204 11 2 1.6402117e+09
6.1963425 1.0914673 -1.2515044 10 3 1.6402117e+09
6.2271929 -1.6278665 -1.3669355 16 4 1.6402117e+09
6.4472404 -5.2694926 -1.5237349 12 5 1.6402117e+09
nan nan nan 0 1 1.6402117e+09
6.4967704 4.4600997 -1.1917967 11 2 1.6402117e+09
6.2261057 1.1213751 -1.2572284 10 3 1.6402117e+09
6.228199 -1.6026062 -1.3681418 15 4 1.6402117e+09
6.4387426 -5.2233009 -1.5246704 11 5 1.6402117e+09
nan nan nan 0 1 1.6402117e+09
6.5137606 4.5069785 -1.1908662 13 2 1.6402117e+09
6.2848892 1.156895 -1.2676675 13 3 1.6402117e+09
6.2291031 -1.5773622 -1.3693444 14 4 1.6402117e+09
6.4117498 -5.1607089 -1.5210019 11 5 1.6402117e+09
nan nan nan 0 1 1.6402117e+09
6.5509491 4.568306 -1.192167 15 2 1.6402117e+09
6.2372375 1.1729017 -1.2578039 13 3 1.6402117e+09
6.2109256 -1.5474062 -1.3663683 14 4 1.6402117e+09
6.3717628 -5.0901542 -1.515914 9 5 1.6402117e+09
7.7864738 12.917978 -1.1235235 8 1 1.6402117e+09
6.5876145 4.6298528 -1.1947373 15 2 1.6402117e+09
6.267899 1.2002013 -1.2601531 13 3 1.6402117e+09
6.1930752 -1.5177273 -1.3611492 15 4 1.6402117e+09
6.3521171 -5.0346255 -1.5110207 9 5 1.6402117e+09
7.765748 12.996202 -1.1064712 8 1 1.6402117e+09
6.6118135 4.6831579 -1.1950059 15 2 1.6402117e+09
6.2151055 1.2171024 -1.2482564 12 3 1.6402117e+09
6.1841917 -1.4881182 -1.3624586 15 4 1.6402117e+09
6.2918234 -4.9493985 -1.5024754 10 5 1.6402117e+09
7.8071442 13.164425 -1.1024709 8 1 1.6402117e+09
6.6399136 4.7397022 -1.1944885 12 2 1.6402117e+09
6.2014046 1.2391629 -1.2430116 12 3 1.6402117e+09
6.1610351 -1.4598136 -1.35507 15 4 1.6402117e+09
6.2402291 -4.870142 -1.4913999 14 5 1.6402117e+09
7.8680434 13.373293 -1.0986027 15 1 1.6402117e+09
6.6787333 4.8062305 -1.1974496 12 2 1.6402117e+09
6.2066412 1.2650118 -1.2427292 12 3 1.6402117e+09
6.1518493 -1.4327121 -1.3541359 16 4 1.6402117e+09
6.2337027 -4.8283882 -1.4927269 14 5 1.6402117e+09
7.9103246 13.558619 -1.0866596 15 1 1.6402117e+09
6.7019758 4.8603396 -1.197426 14 2 1.6402117e+09
6.2309866 1.2949126 -1.2462834 14 3 1.6402117e+09
6.1954613 -1.4155364 -1.3647391 16 4 1.6402117e+09
6.192739 -4.7587285 -1.4855922 16 5 1.6402117e+09
7.9360719 13.712497 -1.0773176 15 1 1.6402117e+09
6.7252531 4.9149346 -1.1944073 15 2 1.6402117e+09
6.2599988 1.3260367 -1.2507763 14 3 1.6402117e+09
6.2576199 -1.4044785 -1.3795754 16 4 1.6402117e+09
6.1153831 -4.6637363 -1.4698803 16 5 1.6402117e+09
7.9510627 13.855287 -1.0638332 18 1 1.6402117e+09
6.751874 4.972456 -1.1948969 15 2 1.6402117e+09
6.2701283 1.3522135 -1.2502954 16 3 1.6402117e+09
6.2677407 -1.381493 -1.3806269 16 4 1.6402117e+09
6.1050138 -4.6188612 -1.4686548 17 5 1.6402117e+09
7.9008183 13.879739 -1.0439895 19 1 1.6402117e+09
6.7741923 5.0272913 -1.1945894 17 2 1.6402117e+09
6.3659821 1.3984872 -1.2681093 16 3 1.6402117e+09
6.2054095 -1.3450584 -1.3670139 18 4 1.6402117e+09
6.1483579 -4.6163177 -1.4819591 20 5 1.6402117e+09
7.8065443 13.831796 -1.0131717 19 1 1.6402117e+09
6.8060784 5.086041 -1.1941051 17 2 1.6402117e+09
6.3471231 1.417587 -1.2629745 17 3 1.6402117e+09
6.1813779 -1.3150201 -1.3629059 18 4 1.6402117e+09
6.1374407 -4.5713758 -1.4820136 20 5 1.6402117e+09
7.6783738 13.716336 -0.9834637 22 1 1.6402117e+09
6.8427033 5.1544743 -1.1963717 17 2 1.6402117e+09
6.3754921 1.4519873 -1.2650822 17 3 1.6402117e+09
6.210288 -1.2940035 -1.3703907 18 4 1.6402117e+09
6.1491656 -4.5451622 -1.4877367 19 5 1.6402117e+09
7.5560064 13.608981 -0.95205188 22 1 1.6402117e+09
6.8801556 5.222322 -1.1955013 17 2 1.6402117e+09
6.3901181 1.4799746 -1.2643023 12 3 1.6402117e+09
6.1819263 -1.2633461 -1.361899 17 4 1.6402117e+09
6.1421976 -4.5036459 -1.4859954 19 5 1.6402117e+09
7.496942 13.608742 -0.93123901 24 1 1.6402117e+09
6.9365492 5.3053107 -1.2009053 17 2 1.6402117e+09
6.3943763 1.5068537 -1.2639018 12 3 1.6402117e+09
6.1670976 -1.235666 -1.3598751 17 4 1.6402117e+09
6.0472889 -4.3984518 -1.4657122 18 5 1.6402117e+09
7.5147023 13.754366 -0.91469747 31 1 1.6402117e+09
7.0398636 5.4253402 -1.2111641 17 2 1.6402117e+09
6.3702984 1.5270218 -1.2555504 11 3 1.6402117e+09
6.1526151 -1.2082102 -1.3556485 17 4 1.6402117e+09
5.9792047 -4.3155117 -1.4493766 18 5 1.6402117e+09
7.4410667 13.73903 -0.88996911 31 1 1.6402117e+09
7.04849 5.4732828 -1.204988 18 2 1.6402117e+09
6.393867 1.5586568 -1.2566034 9 3 1.6402117e+09
6.1238461 -1.1781584 -1.3471637 17 4 1.6402117e+09
5.9749637 -4.2776542 -1.4496855 18 5 1.6402117e+09
7.3322983 13.651784 -0.85823596 31 1 1.6402117e+09
7.1087351 5.5599484 -1.2057695 18 2 1.6402117e+09
6.3987098 1.5847057 -1.2527268 8 3 1.6402117e+09
6.0663462 -1.1429585 -1.331284 14 4 1.6402117e+09
5.9507337 -4.2258406 -1.4438298 16 5 1.6402117e+09
7.3539376 13.686342 -0.84688973 33 1 1.6402117e+09
7.2579212 5.6766315 -1.2228906 18 2 1.6402117e+09
6.404748 1.5862012 -1.2467512 9 3 1.6402117e+09
6.1928258 -1.1656693 -1.3520914 13 4 1.6402117e+09
6.0247092 -4.2767916 -1.453559 18 5 1.6402117e+09
7.4464278 13.7432 -0.86842942 31 1 1.6402117e+09
7.1342783 5.5359077 -1.2032796 18 2 1.6402117e+09
6.415988 1.5628629 -1.2453746 9 3 1.6402117e+09
6.1462445 -1.1813552 -1.3371896 17 4 1.6402117e+09
6.0214486 -4.3093443 -1.4487013 18 5 1.6402117e+09
7.5369363 13.789341 -0.89234447 31 1 1.6402117e+09
7.1224427 5.4850192 -1.2042725 17 2 1.6402117e+09
6.4172764 1.53473 -1.2467512 12 3 1.6402117e+09
6.1709485 -1.212929 -1.3390675 17 4 1.6402117e+09
6.0868673 -4.389987 -1.4574249 18 5 1.6402117e+09
7.6037664 13.796955 -0.91385937 31 1 1.6402117e+09
7.1262479 5.4464569 -1.2063136 17 2 1.6402117e+09
6.4087739 1.506705 -1.2439662 12 3 1.6402117e+09
6.2052951 -1.244446 -1.344084 17 4 1.6402117e+09
6.1392708 -4.4620786 -1.4670067 19 5 1.6402117e+09
7.6247129 13.715799 -0.92681837 25 1 1.6402117e+09
7.1545 5.4246588 -1.2123476 14 2 1.6402117e+09
6.4044213 1.4821097 -1.2421097 17 3 1.6402117e+09
6.225565 -1.2711323 -1.3459508 18 4 1.6402117e+09
6.1550145 -4.5097404 -1.4666082 19 5 1.6402117e+09
7.6769938 13.702648 -0.94415128 22 1 1.6402117e+09
7.1536927 5.3828683 -1.2168156 13 2 1.6402117e+09
6.3956923 1.4542395 -1.2393246 17 3 1.6402117e+09
6.2402544 -1.299111 -1.3478705 18 4 1.6402117e+09
6.1870866 -4.5681844 -1.4698803 19 5 1.6402117e+09
7.8126082 13.825624 -0.97128224 19 1 1.6402117e+09
7.1171198 5.3146057 -1.2135895 13 2 1.6402117e+09
6.4013057 1.4273425 -1.241614 17 3 1.6402117e+09
6.2596059 -1.3305202 -1.3485754 18 4 1.6402117e+09
6.2190313 -4.6270857 -1.4716746 19 5 1.6402117e+09
7.8971953 13.862117 -0.99813759 19 1 1.6402117e+09
7.0879397 5.252461 -1.2131664 15 2 1.6402117e+09
6.4014835 1.402773 -1.2418278 16 3 1.6402117e+09
6.2833714 -1.3608088 -1.3536394 18 4 1.6402117e+09
6.4184179 -4.8138309 -1.5159678 25 5 1.6402117e+09
8.126318 14.143521 -1.0405461 18 1 1.6402117e+09
7.0915804 5.2130957 -1.2150505 17 2 1.6402117e+09
6.4500465 1.3874809 -1.2502059 16 3 1.6402117e+09
6.3124714 -1.3925074 -1.356338 17 4 1.6402117e+09
6.433147 -4.8618217 -1.5163581 25 5 1.6402117e+09
8.2226038 14.196154 -1.0637745 18 1 1.6402117e+09
7.0777721 5.1630926 -1.2172261 17 2 1.6402117e+09
6.5029631 1.3727601 -1.2618351 12 3 1.6402117e+09
6.3502803 -1.4264398 -1.3644428 17 4 1.6402117e+09
6.4860644 -4.9410567 -1.5244534 23 5 1.6402117e+09
8.2865009 14.18633 -1.085465 17 1 1.6402117e+09
7.0671577 5.1176486 -1.2169782 16 2 1.6402117e+09
6.5178065 1.3497728 -1.2637002 12 3 1.6402117e+09
6.374311 -1.4575704 -1.3660336 17 4 1.6402117e+09
6.5395756 -5.0198064 -1.5309227 19 5 1.6402117e+09
8.3226662 14.129082 -1.1006598 17 1 1.6402117e+09
7.052835 5.067976 -1.2190323 16 2 1.6402117e+09
6.4986558 1.3198042 -1.2601947 14 3 1.6402117e+09
6.4458771 -1.5000025 -1.3777732 15 4 1.6402117e+09
6.5796371 -5.0908265 -1.5373567 16 5 1.6402117e+09
nan nan nan 0 1 1.6402117e+09
7.0198359 5.0016565 -1.2175196 16 2 1.6402117e+09
6.4839749 1.2909193 -1.2587686 19 3 1.6402117e+09
6.4829402 -1.5348917 -1.3869448 15 4 1.6402117e+09
6.6356754 -5.1731763 -1.5472782 12 5 1.6402117e+09
nan nan nan 0 1 1.6402117e+09
7.0035319 4.9551077 -1.2164173 17 2 1.6402117e+09
6.4352064 1.2567064 -1.2507702 19 3 1.6402117e+09
6.4872231 -1.5622352 -1.3854895 16 4 1.6402117e+09
6.6836948 -5.2501106 -1.5537521 12 5 1.6402117e+09
8.0295601 13.300254 -1.1000153 19 1 1.6402117e+09
6.9949861 4.9052234 -1.21896 17 2 1.6402117e+09
6.4691439 1.237566 -1.2552421 17 3 1.6402117e+09
6.5061717 -1.59205 -1.385896 19 4 1.6402117e+09
6.7246108 -5.32795 -1.5591553 12 5 1.6402117e+09
8.0337553 13.202821 -1.1132478 7 1 1.6402117e+09
6.9658346 4.8504019 -1.2171174 16 2 1.6402117e+09
6.3764534 1.1967767 -1.2387859 15 3 1.6402117e+09
6.5384941 -1.6265938 -1.3916488 19 4 1.6402117e+09
6.78126 -5.409534 -1.5670583 12 5 1.6402117e+09
8.03965 13.104111 -1.1262836 7 1 1.6402117e+09
6.9463944 4.7991576 -1.2151511 16 2 1.6402117e+09
6.4828558 1.1886572 -1.258479 15 3 1.6402117e+09
6.5659037 -1.6602098 -1.3963645 19 4 1.6402117e+09
6.8391666 -5.4968662 -1.5771791 14 5 1.6402117e+09
8.0214233 12.967532 -1.1331187 15 1 1.6402117e+09
6.9189911 4.7410803 -1.214636 14 2 1.6402117e+09
6.5064921 1.1671859 -1.2633837 14 3 1.6402117e+09
6.5841417 -1.6917452 -1.3966672 18 4 1.6402117e+09
6.8596339 -5.560771 -1.576122 15 5 1.6402117e+09
7.9866662 12.811171 -1.1430826 15 1 1.6402117e+09
6.8863416 4.6817102 -1.213304 14 2 1.6402117e+09
6.5294018 1.1454355 -1.2717665 13 3 1.6402117e+09
6.5965528 -1.7219622 -1.4006922 18 4 1.6402117e+09
6.8781834 -5.6177096 -1.5787078 15 5 1.6402117e+09
7.9888005 12.720438 -1.1505288 16 1 1.6402117e+09
6.8824186 4.6422501 -1.2140464 15 2 1.6402117e+09
6.5581703 1.1245431 -1.2753154 13 3 1.6402117e+09
6.6429186 -1.7613379 -1.4069633 19 4 1.6402117e+09
6.8970532 -5.6753902 -1.5765477 15 5 1.6402117e+09
nan nan nan 0 1 1.6402117e+09
6.8789291 4.6015649 -1.2162069 15 2 1.6402117e+09
6.5523148 1.0976571 -1.2757522 13 3 1.6402117e+09
6.7032824 -1.8049195 -1.4161568 19 4 1.6402117e+09
6.9487147 -5.7627907 -1.5820329 15 5 1.6402117e+09
nan nan nan 0 1 1.6402117e+09
6.8536487 4.5483823 -1.216116 15 2 1.6402117e+09
6.5322838 1.0697025 -1.2698823 13 3 1.6402117e+09
6.748765 -1.844987 -1.4247081 18 4 1.6402117e+09
7.0117612 -5.8585849 -1.5930476 12 5 1.6402117e+09
7.673378 11.929602 -1.138755 17 1 1.6402117e+09
6.8323851 4.4982872 -1.2152456 15 2 1.6402117e+09
6.5506701 1.0469022 -1.2738663 13 3 1.6402117e+09
6.7751594 -1.8801913 -1.4292377 18 4 1.6402117e+09
7.0591431 -5.942245 -1.6004541 12 5 1.6402117e+09
7.6485062 11.795687 -1.1459283 14 1 1.6402117e+09
6.8031688 4.4417009 -1.2142543 12 2 1.6402117e+09
6.5586963 1.024719 -1.2771266 13 3 1.6402117e+09
6.7833333 -1.909264 -1.4273063 19 4 1.6402117e+09
7.1579986 -6.0725727 -1.6163306 13 5 1.6402117e+09
7.6043701 11.63842 -1.1503217 14 1 1.6402117e+09
6.7773652 4.3895097 -1.2110919 11 2 1.6402117e+09
6.5380926 0.99579787 -1.2735577 13 3 1.6402117e+09
6.7905679 -1.9394705 -1.427819 19 4 1.6402117e+09
7.2491541 -6.1957402 -1.6334635 13 5 1.6402117e+09
7.599719 11.53872 -1.1577818 14 1 1.6402117e+09
6.7851367 4.3576527 -1.2152385 9 2 1.6402117e+09
6.5468435 0.96908891 -1.2756582 13 3 1.6402117e+09
6.8070865 -1.9724891 -1.4302995 19 4 1.6402117e+09
7.3023934 -6.2877045 -1.6402565 13 5 1.6402117e+09
7.4510365 11.223208 -1.1454322 15 1 1.6402117e+09
6.7793198 4.3189025 -1.2185283 9 2 1.6402117e+09
6.5697331 0.94671303 -1.2806021 13 3 1.6402117e+09
6.8093467 -2.0015171 -1.4298003 19 4 1.6402117e+09
7.3165092 -6.3489432 -1.6401936 13 5 1.6402117e+09
7.3841348 11.038622 -1.1455615 16 1 1.6402117e+09
6.7358818 4.2566018 -1.2135996 10 2 1.6402117e+09
6.5728765 0.92141795 -1.282919 15 3 1.6402117e+09
6.8211179 -2.0334637 -1.4300234 21 4 1.6402117e+09
7.5174317 -6.5717492 -1.6780783 14 5 1.6402117e+09
7.3504443 10.9098 -1.1485956 16 1 1.6402117e+09
6.7164807 4.211607 -1.2131118 10 2 1.6402117e+09
6.5860028 0.89982814 -1.2836568 15 3 1.6402117e+09
